  -9.6666667e+02  -4.5833333e+02   1.2136200e-03
  -9.6666667e+02  -4.7500000e+02   1.2164000e-03
  -9.6666667e+02  -4.9166667e+02   1.2186800e-03
  -9.6666667e+02  -5.0833333e+02   1.2205100e-03
  -9.6666667e+02  -5.2500000e+02   1.2218800e-03
  -9.6666667e+02  -5.4166667e+02   1.2228700e-03
  -9.6666667e+02  -5.5833333e+02   1.2234900e-03
  -9.6666667e+02  -5.7500000e+02   1.2237800e-03
  -9.6666667e+02  -5.9166667e+02   1.2237600e-03
  -9.6666667e+02  -6.0833333e+02   1.2234800e-03
  -9.6666667e+02  -6.2500000e+02   1.2229400e-03
  -9.6666667e+02  -6.4166667e+02   1.2221900e-03
  -9.3333333e+02  -8.3333333e+00   9.2587700e-04
  -9.3333333e+02  -2.5000000e+01   9.2859500e-04
  -9.3333333e+02  -4.1666667e+01   9.3392800e-04
  -9.3333333e+02  -5.8333333e+01   9.4165100e-04
  -9.3333333e+02  -7.5000000e+01   9.5149500e-04
  -9.3333333e+02  -9.1666667e+01   9.6312600e-04
  -9.3333333e+02  -1.0833333e+02   9.7620900e-04
  -9.3333333e+02  -1.2500000e+02   9.9040400e-04
  -9.3333333e+02  -1.4166667e+02   1.0053800e-03
  -9.3333333e+02  -1.5833333e+02   1.0208700e-03
  -9.3333333e+02  -1.7500000e+02   1.0365600e-03
  -9.3333333e+02  -1.9166667e+02   1.0522800e-03
  -9.3333333e+02  -2.0833333e+02   1.0677600e-03
  -9.3333333e+02  -2.2500000e+02   1.0829100e-03
  -9.3333333e+02  -2.4166667e+02   1.0975100e-03
  -9.3333333e+02  -2.5833333e+02   1.1115100e-03
  -9.3333333e+02  -2.7500000e+02   1.1247900e-03
  -9.3333333e+02  -2.9166667e+02   1.1372700e-03
  -9.3333333e+02  -3.0833333e+02   1.1489300e-03
  -9.3333333e+02  -3.2500000e+02   1.1597400e-03
  -9.3333333e+02  -3.4166667e+02   1.1696800e-03
  -9.3333333e+02  -3.5833333e+02   1.1787500e-03
  -9.3333333e+02  -3.7500000e+02   1.1869500e-03
  -9.3333333e+02  -3.9166667e+02   1.1943000e-03
  -9.3333333e+02  -4.0833333e+02   1.2008300e-03
  -9.3333333e+02  -4.2500000e+02   1.2065800e-03
  -9.3333333e+02  -4.4166667e+02   1.2115900e-03
  -9.3333333e+02  -4.5833333e+02   1.2158800e-03
  -9.3333333e+02  -4.7500000e+02   1.2195000e-03
  -9.3333333e+02  -4.9166667e+02   1.2225100e-03
  -9.3333333e+02  -5.0833333e+02   1.2249300e-03
  -9.3333333e+02  -5.2500000e+02   1.2268300e-03
  -9.3333333e+02  -5.4166667e+02   1.2282300e-03
  -9.3333333e+02  -5.5833333e+02   1.2291900e-03
  -9.3333333e+02  -5.7500000e+02   1.2297400e-03
  -9.3333333e+02  -5.9166667e+02   1.2299200e-03
  -9.3333333e+02  -6.0833333e+02   1.2297700e-03
  -9.3333333e+02  -6.2500000e+02   1.2293300e-03
  -9.3333333e+02  -6.4166667e+02   1.2286200e-03
  -9.0000000e+02  -8.3333333e+00   8.4182000e-04
  -9.0000000e+02  -2.5000000e+01   8.4567200e-04
  -9.0000000e+02  -4.1666667e+01   8.5315400e-04
  -9.0000000e+02  -5.8333333e+01   8.6391100e-04
  -9.0000000e+02  -7.5000000e+01   8.7745300e-04
  -9.0000000e+02  -9.1666667e+01   8.9329000e-04
  -9.0000000e+02  -1.0833333e+02   9.1089700e-04
  -9.0000000e+02  -1.2500000e+02   9.2981700e-04
  -9.0000000e+02  -1.4166667e+02   9.4959700e-04
  -9.0000000e+02  -1.5833333e+02   9.6987400e-04
  -9.0000000e+02  -1.7500000e+02   9.9029700e-04
  -9.0000000e+02  -1.9166667e+02   1.0105900e-03
  -9.0000000e+02  -2.0833333e+02   1.0305200e-03
  -9.0000000e+02  -2.2500000e+02   1.0498600e-03
  -9.0000000e+02  -2.4166667e+02   1.0685100e-03
  -9.0000000e+02  -2.5833333e+02   1.0862800e-03
  -9.0000000e+02  -2.7500000e+02   1.1031200e-03
  -9.0000000e+02  -2.9166667e+02   1.1189300e-03
  -9.0000000e+02  -3.0833333e+02   1.1336500e-03
  -9.0000000e+02  -3.2500000e+02   1.1472600e-03
  -9.0000000e+02  -3.4166667e+02   1.1597700e-03
  -9.0000000e+02  -3.5833333e+02   1.1711800e-03
  -9.0000000e+02  -3.7500000e+02   1.1815000e-03
  -9.0000000e+02  -3.9166667e+02   1.1907500e-03
  -9.0000000e+02  -4.0833333e+02   1.1989700e-03
  -9.0000000e+02  -4.2500000e+02   1.2062100e-03
  -9.0000000e+02  -4.4166667e+02   1.2125200e-03
  -9.0000000e+02  -4.5833333e+02   1.2179500e-03
  -9.0000000e+02  -4.7500000e+02   1.2225600e-03
  -9.0000000e+02  -4.9166667e+02   1.2264100e-03
  -9.0000000e+02  -5.0833333e+02   1.2295500e-03
  -9.0000000e+02  -5.2500000e+02   1.2320300e-03
  -9.0000000e+02  -5.4166667e+02   1.2339300e-03
  -9.0000000e+02  -5.5833333e+02   1.2352700e-03
  -9.0000000e+02  -5.7500000e+02   1.2361200e-03
  -9.0000000e+02  -5.9166667e+02   1.2365300e-03
  -9.0000000e+02  -6.0833333e+02   1.2365400e-03
  -9.0000000e+02  -6.2500000e+02   1.2361900e-03
  -9.0000000e+02  -6.4166667e+02   1.2355400e-03
  -8.6666667e+02  -8.3333333e+00   7.4329900e-04
  -8.6666667e+02  -2.5000000e+01   7.4876300e-04
  -8.6666667e+02  -4.1666667e+01   7.5926700e-04
  -8.6666667e+02  -5.8333333e+01   7.7406500e-04
  -8.6666667e+02  -7.5000000e+01   7.9238400e-04
  -8.6666667e+02  -9.1666667e+01   8.1341000e-04
  -8.6666667e+02  -1.0833333e+02   8.3646100e-04
  -8.6666667e+02  -1.2500000e+02   8.6090000e-04
  -8.6666667e+02  -1.4166667e+02   8.8620700e-04
  -8.6666667e+02  -1.5833333e+02   9.1193100e-04
  -8.6666667e+02  -1.7500000e+02   9.3768400e-04
  -8.6666667e+02  -1.9166667e+02   9.6313700e-04
  -8.6666667e+02  -2.0833333e+02   9.8804800e-04
  -8.6666667e+02  -2.2500000e+02   1.0121600e-03
  -8.6666667e+02  -2.4166667e+02   1.0352900e-03
  -8.6666667e+02  -2.5833333e+02   1.0573500e-03
  -8.6666667e+02  -2.7500000e+02   1.0781600e-03
  -8.6666667e+02  -2.9166667e+02   1.0977200e-03
  -8.6666667e+02  -3.0833333e+02   1.1159100e-03
  -8.6666667e+02  -3.2500000e+02   1.1327200e-03
  -8.6666667e+02  -3.4166667e+02   1.1481400e-03
  -8.6666667e+02  -3.5833333e+02   1.1622000e-03
  -8.6666667e+02  -3.7500000e+02   1.1749300e-03
  -8.6666667e+02  -3.9166667e+02   1.1863300e-03
  -8.6666667e+02  -4.0833333e+02   1.1964800e-03
  -8.6666667e+02  -4.2500000e+02   1.2054200e-03
  -8.6666667e+02  -4.4166667e+02   1.2132200e-03
  -8.6666667e+02  -4.5833333e+02   1.2199500e-03
  -8.6666667e+02  -4.7500000e+02   1.2256800e-03
  -8.6666667e+02  -4.9166667e+02   1.2304800e-03
  -8.6666667e+02  -5.0833333e+02   1.2344300e-03
  -8.6666667e+02  -5.2500000e+02   1.2375900e-03
  -8.6666667e+02  -5.4166667e+02   1.2400200e-03
  -8.6666667e+02  -5.5833333e+02   1.2418100e-03
  -8.6666667e+02  -5.7500000e+02   1.2429900e-03
  -8.6666667e+02  -5.9166667e+02   1.2436600e-03
  -8.6666667e+02  -6.0833333e+02   1.2438500e-03
  -8.6666667e+02  -6.2500000e+02   1.2436100e-03
  -8.6666667e+02  -6.4166667e+02   1.2430000e-03
  -8.3333333e+02  -8.3333333e+00   6.3566000e-04
  -8.3333333e+02  -2.5000000e+01   6.4361400e-04
  -8.3333333e+02  -4.1666667e+01   6.5834500e-04
  -8.3333333e+02  -5.8333333e+01   6.7838700e-04
  -8.3333333e+02  -7.5000000e+01   7.0237000e-04
  -8.3333333e+02  -9.1666667e+01   7.2921600e-04
  -8.3333333e+02  -1.0833333e+02   7.5801400e-04
  -8.3333333e+02  -1.2500000e+02   7.8814200e-04
  -8.3333333e+02  -1.4166667e+02   8.1900400e-04
  -8.3333333e+02  -1.5833333e+02   8.5019800e-04
  -8.3333333e+02  -1.7500000e+02   8.8131200e-04
  -8.3333333e+02  -1.9166667e+02   9.1200000e-04
  -8.3333333e+02  -2.0833333e+02   9.4199700e-04
  -8.3333333e+02  -2.2500000e+02   9.7106500e-04
  -8.3333333e+02  -2.4166667e+02   9.9897700e-04
  -8.3333333e+02  -2.5833333e+02   1.0255500e-03
  -8.3333333e+02  -2.7500000e+02   1.0506800e-03
  -8.3333333e+02  -2.9166667e+02   1.0742300e-03
  -8.3333333e+02  -3.0833333e+02   1.0961900e-03
  -8.3333333e+02  -3.2500000e+02   1.1165000e-03
  -8.3333333e+02  -3.4166667e+02   1.1351400e-03
  -8.3333333e+02  -3.5833333e+02   1.1521300e-03
  -8.3333333e+02  -3.7500000e+02   1.1675000e-03
  -8.3333333e+02  -3.9166667e+02   1.1812900e-03
  -8.3333333e+02  -4.0833333e+02   1.1935700e-03
  -8.3333333e+02  -4.2500000e+02   1.2044000e-03
  -8.3333333e+02  -4.4166667e+02   1.2138600e-03
  -8.3333333e+02  -4.5833333e+02   1.2220300e-03
  -8.3333333e+02  -4.7500000e+02   1.2290000e-03
  -8.3333333e+02  -4.9166667e+02   1.2348600e-03
  -8.3333333e+02  -5.0833333e+02   1.2396900e-03
  -8.3333333e+02  -5.2500000e+02   1.2435900e-03
  -8.3333333e+02  -5.4166667e+02   1.2466300e-03
  -8.3333333e+02  -5.5833333e+02   1.2488900e-03
  -8.3333333e+02  -5.7500000e+02   1.2504500e-03
  -8.3333333e+02  -5.9166667e+02   1.2513900e-03
  -8.3333333e+02  -6.0833333e+02   1.2517700e-03
  -8.3333333e+02  -6.2500000e+02   1.2516500e-03
  -8.3333333e+02  -6.4166667e+02   1.2510900e-03
  -8.0000000e+02  -8.3333333e+00   5.3226800e-04
  -8.0000000e+02  -2.5000000e+01   5.4451300e-04
  -8.0000000e+02  -4.1666667e+01   5.6506300e-04
  -8.0000000e+02  -5.8333333e+01   5.9087800e-04
  -8.0000000e+02  -7.5000000e+01   6.2008000e-04
  -8.0000000e+02  -9.1666667e+01   6.5159200e-04
  -8.0000000e+02  -1.0833333e+02   6.8473200e-04
  -8.0000000e+02  -1.2500000e+02   7.1902000e-04
  -8.0000000e+02  -1.4166667e+02   7.5409800e-04
  -8.0000000e+02  -1.5833333e+02   7.8955700e-04
  -8.0000000e+02  -1.7500000e+02   8.2510500e-04
  -8.0000000e+02  -1.9166667e+02   8.6033400e-04
  -8.0000000e+02  -2.0833333e+02   8.9493500e-04
  -8.0000000e+02  -2.2500000e+02   9.2860800e-04
  -8.0000000e+02  -2.4166667e+02   9.6109600e-04
  -8.0000000e+02  -2.5833333e+02   9.9217700e-04
  -8.0000000e+02  -2.7500000e+02   1.0216500e-03
  -8.0000000e+02  -2.9166667e+02   1.0493900e-03
  -8.0000000e+02  -3.0833333e+02   1.0752500e-03
  -8.0000000e+02  -3.2500000e+02   1.0992200e-03
  -8.0000000e+02  -3.4166667e+02   1.1212600e-03
  -8.0000000e+02  -3.5833333e+02   1.1413800e-03
  -8.0000000e+02  -3.7500000e+02   1.1596000e-03
  -8.0000000e+02  -3.9166667e+02   1.1759700e-03
  -8.0000000e+02  -4.0833333e+02   1.1905500e-03
  -8.0000000e+02  -4.2500000e+02   1.2034200e-03
  -8.0000000e+02  -4.4166667e+02   1.2146700e-03
  -8.0000000e+02  -4.5833333e+02   1.2244000e-03
  -8.0000000e+02  -4.7500000e+02   1.2327100e-03
  -8.0000000e+02  -4.9166667e+02   1.2397100e-03
  -8.0000000e+02  -5.0833333e+02   1.2455100e-03
  -8.0000000e+02  -5.2500000e+02   1.2502000e-03
  -8.0000000e+02  -5.4166667e+02   1.2538800e-03
  -8.0000000e+02  -5.5833333e+02   1.2566600e-03
  -8.0000000e+02  -5.7500000e+02   1.2586000e-03
  -8.0000000e+02  -5.9166667e+02   1.2598200e-03
  -8.0000000e+02  -6.0833333e+02   1.2603900e-03
  -8.0000000e+02  -6.2500000e+02   1.2603900e-03
  -8.0000000e+02  -6.4166667e+02   1.2598700e-03
  -7.6666667e+02  -8.3333333e+00   4.6880300e-04
  -7.6666667e+02  -2.5000000e+01   4.8876200e-04
  -7.6666667e+02  -4.1666667e+01   5.1352300e-04
  -7.6666667e+02  -5.8333333e+01   5.3986400e-04
  -7.6666667e+02  -7.5000000e+01   5.6766800e-04
  -7.6666667e+02  -9.1666667e+01   5.9733300e-04
  -7.6666667e+02  -1.0833333e+02   6.2911500e-04
  -7.6666667e+02  -1.2500000e+02   6.6293100e-04
  -7.6666667e+02  -1.4166667e+02   6.9851800e-04
  -7.6666667e+02  -1.5833333e+02   7.3546900e-04
  -7.6666667e+02  -1.7500000e+02   7.7326900e-04
  -7.6666667e+02  -1.9166667e+02   8.1146400e-04
  -7.6666667e+02  -2.0833333e+02   8.4952500e-04
  -7.6666667e+02  -2.2500000e+02   8.8704400e-04
  -7.6666667e+02  -2.4166667e+02   9.2356900e-04
  -7.6666667e+02  -2.5833333e+02   9.5876300e-04
  -7.6666667e+02  -2.7500000e+02   9.9238300e-04
  -7.6666667e+02  -2.9166667e+02   1.0241700e-03
  -7.6666667e+02  -3.0833333e+02   1.0539800e-03
  -7.6666667e+02  -3.2500000e+02   1.0816800e-03
  -7.6666667e+02  -3.4166667e+02   1.1072000e-03
  -7.6666667e+02  -3.5833333e+02   1.1305500e-03
  -7.6666667e+02  -3.7500000e+02   1.1517300e-03
  -7.6666667e+02  -3.9166667e+02   1.1707900e-03
  -7.6666667e+02  -4.0833333e+02   1.1877900e-03
  -7.6666667e+02  -4.2500000e+02   1.2028100e-03
  -7.6666667e+02  -4.4166667e+02   1.2159500e-03
  -7.6666667e+02  -4.5833333e+02   1.2273300e-03
  -7.6666667e+02  -4.7500000e+02   1.2370600e-03
  -7.6666667e+02  -4.9166667e+02   1.2452600e-03
  -7.6666667e+02  -5.0833333e+02   1.2520600e-03
  -7.6666667e+02  -5.2500000e+02   1.2575800e-03
  -7.6666667e+02  -5.4166667e+02   1.2619300e-03
  -7.6666667e+02  -5.5833333e+02   1.2652200e-03
  -7.6666667e+02  -5.7500000e+02   1.2675800e-03
  -7.6666667e+02  -5.9166667e+02   1.2690800e-03
  -7.6666667e+02  -6.0833333e+02   1.2698300e-03
  -7.6666667e+02  -6.2500000e+02   1.2699200e-03
  -7.6666667e+02  -6.4166667e+02   1.2694300e-03
  -7.3333333e+02  -8.3333333e+00   6.6859200e-04
  -7.3333333e+02  -2.5000000e+01   6.2367100e-04
  -7.3333333e+02  -4.1666667e+01   5.8903300e-04
  -7.3333333e+02  -5.8333333e+01   5.7221700e-04
  -7.3333333e+02  -7.5000000e+01   5.7059100e-04
  -7.3333333e+02  -9.1666667e+01   5.8067000e-04
  -7.3333333e+02  -1.0833333e+02   5.9963900e-04
  -7.3333333e+02  -1.2500000e+02   6.2541600e-04
  -7.3333333e+02  -1.4166667e+02   6.5633200e-04
  -7.3333333e+02  -1.5833333e+02   6.9109500e-04
  -7.3333333e+02  -1.7500000e+02   7.2856400e-04
  -7.3333333e+02  -1.9166667e+02   7.6775800e-04
  -7.3333333e+02  -2.0833333e+02   8.0785700e-04
  -7.3333333e+02  -2.2500000e+02   8.4811100e-04
  -7.3333333e+02  -2.4166667e+02   8.8794700e-04
  -7.3333333e+02  -2.5833333e+02   9.2677400e-04
  -7.3333333e+02  -2.7500000e+02   9.6415100e-04
  -7.3333333e+02  -2.9166667e+02   9.9977700e-04
  -7.3333333e+02  -3.0833333e+02   1.0333500e-03
  -7.3333333e+02  -3.2500000e+02   1.0647000e-03
  -7.3333333e+02  -3.4166667e+02   1.0937000e-03
  -7.3333333e+02  -3.5833333e+02   1.1203000e-03
  -7.3333333e+02  -3.7500000e+02   1.1444900e-03
  -7.3333333e+02  -3.9166667e+02   1.1662900e-03
  -7.3333333e+02  -4.0833333e+02   1.1857600e-03
  -7.3333333e+02  -4.2500000e+02   1.2029900e-03
  -7.3333333e+02  -4.4166667e+02   1.2180700e-03
  -7.3333333e+02  -4.5833333e+02   1.2311400e-03
  -7.3333333e+02  -4.7500000e+02   1.2423300e-03
  -7.3333333e+02  -4.9166667e+02   1.2517600e-03
  -7.3333333e+02  -5.0833333e+02   1.2595900e-03
  -7.3333333e+02  -5.2500000e+02   1.2659500e-03
  -7.3333333e+02  -5.4166667e+02   1.2709700e-03
  -7.3333333e+02  -5.5833333e+02   1.2747800e-03
  -7.3333333e+02  -5.7500000e+02   1.2775100e-03
  -7.3333333e+02  -5.9166667e+02   1.2792800e-03
  -7.3333333e+02  -6.0833333e+02   1.2801900e-03
  -7.3333333e+02  -6.2500000e+02   1.2803500e-03
  -7.3333333e+02  -6.4166667e+02   1.2798400e-03
  -7.0000000e+02  -8.3333333e+00   7.1249300e-04
  -7.0000000e+02  -2.5000000e+01   6.7708700e-04
  -7.0000000e+02  -4.1666667e+01   6.3344600e-04
  -7.0000000e+02  -5.8333333e+01   5.9888600e-04
  -7.0000000e+02  -7.5000000e+01   5.7904900e-04
  -7.0000000e+02  -9.1666667e+01   5.7372700e-04
  -7.0000000e+02  -1.0833333e+02   5.8086800e-04
  -7.0000000e+02  -1.2500000e+02   5.9810700e-04
  -7.0000000e+02  -1.4166667e+02   6.2332000e-04
  -7.0000000e+02  -1.5833333e+02   6.5463900e-04
  -7.0000000e+02  -1.7500000e+02   6.9053600e-04
  -7.0000000e+02  -1.9166667e+02   7.2963400e-04
  -7.0000000e+02  -2.0833333e+02   7.7079400e-04
  -7.0000000e+02  -2.2500000e+02   8.1302400e-04
  -7.0000000e+02  -2.4166667e+02   8.5541900e-04
  -7.0000000e+02  -2.5833333e+02   8.9732100e-04
  -7.0000000e+02  -2.7500000e+02   9.3810500e-04
  -7.0000000e+02  -2.9166667e+02   9.7723100e-04
  -7.0000000e+02  -3.0833333e+02   1.0143600e-03
  -7.0000000e+02  -3.2500000e+02   1.0492100e-03
  -7.0000000e+02  -3.4166667e+02   1.0815800e-03
  -7.0000000e+02  -3.5833333e+02   1.1113700e-03
  -7.0000000e+02  -3.7500000e+02   1.1385200e-03
  -7.0000000e+02  -3.9166667e+02   1.1630400e-03
  -7.0000000e+02  -4.0833333e+02   1.1849800e-03
  -7.0000000e+02  -4.2500000e+02   1.2044100e-03
  -7.0000000e+02  -4.4166667e+02   1.2214400e-03
  -7.0000000e+02  -4.5833333e+02   1.2362000e-03
  -7.0000000e+02  -4.7500000e+02   1.2488400e-03
  -7.0000000e+02  -4.9166667e+02   1.2594900e-03
  -7.0000000e+02  -5.0833333e+02   1.2683400e-03
  -7.0000000e+02  -5.2500000e+02   1.2755100e-03
  -7.0000000e+02  -5.4166667e+02   1.2811800e-03
  -7.0000000e+02  -5.5833333e+02   1.2854900e-03
  -7.0000000e+02  -5.7500000e+02   1.2885800e-03
  -7.0000000e+02  -5.9166667e+02   1.2905700e-03
  -7.0000000e+02  -6.0833333e+02   1.2916000e-03
  -7.0000000e+02  -6.2500000e+02   1.2917800e-03
  -7.0000000e+02  -6.4166667e+02   1.2912200e-03
  -6.6666667e+02  -8.3333333e+00   7.0823100e-04
  -6.6666667e+02  -2.5000000e+01   6.8689800e-04
  -6.6666667e+02  -4.1666667e+01   6.4770300e-04
  -6.6666667e+02  -5.8333333e+01   6.0797200e-04
  -6.6666667e+02  -7.5000000e+01   5.7890200e-04
  -6.6666667e+02  -9.1666667e+01   5.6413400e-04
  -6.6666667e+02  -1.0833333e+02   5.6321100e-04
  -6.6666667e+02  -1.2500000e+02   5.7419400e-04
  -6.6666667e+02  -1.4166667e+02   5.9492900e-04
  -6.6666667e+02  -1.5833333e+02   6.2340400e-04
  -6.6666667e+02  -1.7500000e+02   6.5781300e-04
  -6.6666667e+02  -1.9166667e+02   6.9666500e-04
  -6.6666667e+02  -2.0833333e+02   7.3854800e-04
  -6.6666667e+02  -2.2500000e+02   7.8231200e-04
  -6.6666667e+02  -2.4166667e+02   8.2691300e-04
  -6.6666667e+02  -2.5833333e+02   8.7142700e-04
  -6.6666667e+02  -2.7500000e+02   9.1517600e-04
  -6.6666667e+02  -2.9166667e+02   9.5753500e-04
  -6.6666667e+02  -3.0833333e+02   9.9795500e-04
  -6.6666667e+02  -3.2500000e+02   1.0360800e-03
  -6.6666667e+02  -3.4166667e+02   1.0716500e-03
  -6.6666667e+02  -3.5833333e+02   1.1044800e-03
  -6.6666667e+02  -3.7500000e+02   1.1344900e-03
  -6.6666667e+02  -3.9166667e+02   1.1616500e-03
  -6.6666667e+02  -4.0833333e+02   1.1859800e-03
  -6.6666667e+02  -4.2500000e+02   1.2075600e-03
  -6.6666667e+02  -4.4166667e+02   1.2264900e-03
  -6.6666667e+02  -4.5833333e+02   1.2428900e-03
  -6.6666667e+02  -4.7500000e+02   1.2569400e-03
  -6.6666667e+02  -4.9166667e+02   1.2687800e-03
  -6.6666667e+02  -5.0833333e+02   1.2785800e-03
  -6.6666667e+02  -5.2500000e+02   1.2865400e-03
  -6.6666667e+02  -5.4166667e+02   1.2928000e-03
  -6.6666667e+02  -5.5833333e+02   1.2975400e-03
  -6.6666667e+02  -5.7500000e+02   1.3009200e-03
  -6.6666667e+02  -5.9166667e+02   1.3030900e-03
  -6.6666667e+02  -6.0833333e+02   1.3041700e-03
  -6.6666667e+02  -6.2500000e+02   1.3043300e-03
  -6.6666667e+02  -6.4166667e+02   1.3036600e-03
  -6.3333333e+02  -8.3333333e+00   8.5427400e-04
  -6.3333333e+02  -2.5000000e+01   7.7973700e-04
  -6.3333333e+02  -4.1666667e+01   6.9474200e-04
  -6.3333333e+02  -5.8333333e+01   6.2551600e-04
  -6.3333333e+02  -7.5000000e+01   5.7870800e-04
  -6.3333333e+02  -9.1666667e+01   5.5309700e-04
  -6.3333333e+02  -1.0833333e+02   5.4523700e-04
  -6.3333333e+02  -1.2500000e+02   5.5165900e-04
  -6.3333333e+02  -1.4166667e+02   5.6943200e-04
  -6.3333333e+02  -1.5833333e+02   5.9610300e-04
  -6.3333333e+02  -1.7500000e+02   6.2976300e-04
  -6.3333333e+02  -1.9166667e+02   6.6864800e-04
  -6.3333333e+02  -2.0833333e+02   7.1130300e-04
  -6.3333333e+02  -2.2500000e+02   7.5647500e-04
  -6.3333333e+02  -2.4166667e+02   8.0304500e-04
  -6.3333333e+02  -2.5833333e+02   8.4996500e-04
  -6.3333333e+02  -2.7500000e+02   8.9637500e-04
  -6.3333333e+02  -2.9166667e+02   9.4157700e-04
  -6.3333333e+02  -3.0833333e+02   9.8498200e-04
  -6.3333333e+02  -3.2500000e+02   1.0261400e-03
  -6.3333333e+02  -3.4166667e+02   1.0646800e-03
  -6.3333333e+02  -3.5833333e+02   1.1003700e-03
  -6.3333333e+02  -3.7500000e+02   1.1330700e-03
  -6.3333333e+02  -3.9166667e+02   1.1627200e-03
  -6.3333333e+02  -4.0833333e+02   1.1893200e-03
  -6.3333333e+02  -4.2500000e+02   1.2129300e-03
  -6.3333333e+02  -4.4166667e+02   1.2336500e-03
  -6.3333333e+02  -4.5833333e+02   1.2516100e-03
  -6.3333333e+02  -4.7500000e+02   1.2669700e-03
  -6.3333333e+02  -4.9166667e+02   1.2799100e-03
  -6.3333333e+02  -5.0833333e+02   1.2906100e-03
  -6.3333333e+02  -5.2500000e+02   1.2992400e-03
  -6.3333333e+02  -5.4166667e+02   1.3060300e-03
  -6.3333333e+02  -5.5833333e+02   1.3111300e-03
  -6.3333333e+02  -5.7500000e+02   1.3147200e-03
  -6.3333333e+02  -5.9166667e+02   1.3169800e-03
  -6.3333333e+02  -6.0833333e+02   1.3180600e-03
  -6.3333333e+02  -6.2500000e+02   1.3181000e-03
  -6.3333333e+02  -6.4166667e+02   1.3172400e-03
  -6.0000000e+02  -8.3333333e+00   8.4910000e-04
  -6.0000000e+02  -2.5000000e+01   7.7555100e-04
  -6.0000000e+02  -4.1666667e+01   6.8485700e-04
  -6.0000000e+02  -5.8333333e+01   6.1013000e-04
  -6.0000000e+02  -7.5000000e+01   5.5986700e-04
  -6.0000000e+02  -9.1666667e+01   5.3222200e-04
  -6.0000000e+02  -1.0833333e+02   5.2317400e-04
  -6.0000000e+02  -1.2500000e+02   5.2882000e-04
  -6.0000000e+02  -1.4166667e+02   5.4612700e-04
  -6.0000000e+02  -1.5833333e+02   5.7267200e-04
  -6.0000000e+02  -1.7500000e+02   6.0649200e-04
  -6.0000000e+02  -1.9166667e+02   6.4598900e-04
  -6.0000000e+02  -2.0833333e+02   6.8965400e-04
  -6.0000000e+02  -2.2500000e+02   7.3625500e-04
  -6.0000000e+02  -2.4166667e+02   7.8456400e-04
  -6.0000000e+02  -2.5833333e+02   8.3358700e-04
  -6.0000000e+02  -2.7500000e+02   8.8239900e-04
  -6.0000000e+02  -2.9166667e+02   9.3018200e-04
  -6.0000000e+02  -3.0833333e+02   9.7629200e-04
  -6.0000000e+02  -3.2500000e+02   1.0201600e-03
  -6.0000000e+02  -3.4166667e+02   1.0614000e-03
  -6.0000000e+02  -3.5833333e+02   1.0996900e-03
  -6.0000000e+02  -3.7500000e+02   1.1348600e-03
  -6.0000000e+02  -3.9166667e+02   1.1668100e-03
  -6.0000000e+02  -4.0833333e+02   1.1955100e-03
  -6.0000000e+02  -4.2500000e+02   1.2209900e-03
  -6.0000000e+02  -4.4166667e+02   1.2433500e-03
  -6.0000000e+02  -4.5833333e+02   1.2627400e-03
  -6.0000000e+02  -4.7500000e+02   1.2792900e-03
  -6.0000000e+02  -4.9166667e+02   1.2932000e-03
  -6.0000000e+02  -5.0833333e+02   1.3046600e-03
  -6.0000000e+02  -5.2500000e+02   1.3138900e-03
  -6.0000000e+02  -5.4166667e+02   1.3210700e-03
  -6.0000000e+02  -5.5833333e+02   1.3264300e-03
  -6.0000000e+02  -5.7500000e+02   1.3301400e-03
  -6.0000000e+02  -5.9166667e+02   1.3323900e-03
  -6.0000000e+02  -6.0833333e+02   1.3333500e-03
  -6.0000000e+02  -6.2500000e+02   1.3331900e-03
  -6.0000000e+02  -6.4166667e+02   1.3320600e-03
  -5.6666667e+02  -8.3333333e+00   7.6082400e-04
  -5.6666667e+02  -2.5000000e+01   6.9342000e-04
  -5.6666667e+02  -4.1666667e+01   6.2042200e-04
  -5.6666667e+02  -5.8333333e+01   5.6262100e-04
  -5.6666667e+02  -7.5000000e+01   5.2429300e-04
  -5.6666667e+02  -9.1666667e+01   5.0417800e-04
  -5.6666667e+02  -1.0833333e+02   4.9957100e-04
  -5.6666667e+02  -1.2500000e+02   5.0785900e-04
  -5.6666667e+02  -1.4166667e+02   5.2674400e-04
  -5.6666667e+02  -1.5833333e+02   5.5436700e-04
  -5.6666667e+02  -1.7500000e+02   5.8909000e-04
  -5.6666667e+02  -1.9166667e+02   6.2950300e-04
  -5.6666667e+02  -2.0833333e+02   6.7430500e-04
  -5.6666667e+02  -2.2500000e+02   7.2222700e-04
  -5.6666667e+02  -2.4166667e+02   7.7218900e-04
  -5.6666667e+02  -2.5833333e+02   8.2304600e-04
  -5.6666667e+02  -2.7500000e+02   8.7389800e-04
  -5.6666667e+02  -2.9166667e+02   9.2398000e-04
  -5.6666667e+02  -3.0833333e+02   9.7246200e-04
  -5.6666667e+02  -3.2500000e+02   1.0187400e-03
  -5.6666667e+02  -3.4166667e+02   1.0623600e-03
  -5.6666667e+02  -3.5833333e+02   1.1030000e-03
  -5.6666667e+02  -3.7500000e+02   1.1403900e-03
  -5.6666667e+02  -3.9166667e+02   1.1744200e-03
  -5.6666667e+02  -4.0833333e+02   1.2049800e-03
  -5.6666667e+02  -4.2500000e+02   1.2321500e-03
  -5.6666667e+02  -4.4166667e+02   1.2559800e-03
  -5.6666667e+02  -4.5833333e+02   1.2766000e-03
  -5.6666667e+02  -4.7500000e+02   1.2942000e-03
  -5.6666667e+02  -4.9166667e+02   1.3089200e-03
  -5.6666667e+02  -5.0833333e+02   1.3210200e-03
  -5.6666667e+02  -5.2500000e+02   1.3306800e-03
  -5.6666667e+02  -5.4166667e+02   1.3381500e-03
  -5.6666667e+02  -5.5833333e+02   1.3436200e-03
  -5.6666667e+02  -5.7500000e+02   1.3473200e-03
  -5.6666667e+02  -5.9166667e+02   1.3494400e-03
  -5.6666667e+02  -6.0833333e+02   1.3501800e-03
  -5.6666667e+02  -6.2500000e+02   1.3497100e-03
  -5.6666667e+02  -6.4166667e+02   1.3481900e-03
  -5.3333333e+02  -8.3333333e+00   6.0632300e-04
  -5.3333333e+02  -2.5000000e+01   5.8660400e-04
  -5.3333333e+02  -4.1666667e+01   5.5342600e-04
  -5.3333333e+02  -5.8333333e+01   5.2033100e-04
  -5.3333333e+02  -7.5000000e+01   4.9601400e-04
  -5.3333333e+02  -9.1666667e+01   4.8370000e-04
  -5.3333333e+02  -1.0833333e+02   4.8344600e-04
  -5.3333333e+02  -1.2500000e+02   4.9422400e-04
  -5.3333333e+02  -1.4166667e+02   5.1460600e-04
  -5.3333333e+02  -1.5833333e+02   5.4321300e-04
  -5.3333333e+02  -1.7500000e+02   5.7879100e-04
  -5.3333333e+02  -1.9166667e+02   6.2004300e-04
  -5.3333333e+02  -2.0833333e+02   6.6577400e-04
  -5.3333333e+02  -2.2500000e+02   7.1485300e-04
  -5.3333333e+02  -2.4166667e+02   7.6616900e-04
  -5.3333333e+02  -2.5833333e+02   8.1870000e-04
  -5.3333333e+02  -2.7500000e+02   8.7137900e-04
  -5.3333333e+02  -2.9166667e+02   9.2332300e-04
  -5.3333333e+02  -3.0833333e+02   9.7385400e-04
  -5.3333333e+02  -3.2500000e+02   1.0222600e-03
  -5.3333333e+02  -3.4166667e+02   1.0680100e-03
  -5.3333333e+02  -3.5833333e+02   1.1107100e-03
  -5.3333333e+02  -3.7500000e+02   1.1500600e-03
  -5.3333333e+02  -3.9166667e+02   1.1858900e-03
  -5.3333333e+02  -4.0833333e+02   1.2181300e-03
  -5.3333333e+02  -4.2500000e+02   1.2467500e-03
  -5.3333333e+02  -4.4166667e+02   1.2718500e-03
  -5.3333333e+02  -4.5833333e+02   1.2935300e-03
  -5.3333333e+02  -4.7500000e+02   1.3119600e-03
  -5.3333333e+02  -4.9166667e+02   1.3273500e-03
  -5.3333333e+02  -5.0833333e+02   1.3398900e-03
  -5.3333333e+02  -5.2500000e+02   1.3498300e-03
  -5.3333333e+02  -5.4166667e+02   1.3574200e-03
  -5.3333333e+02  -5.5833333e+02   1.3628600e-03
  -5.3333333e+02  -5.7500000e+02   1.3664100e-03
  -5.3333333e+02  -5.9166667e+02   1.3682600e-03
  -5.3333333e+02  -6.0833333e+02   1.3686400e-03
  -5.3333333e+02  -6.2500000e+02   1.3677300e-03
  -5.3333333e+02  -6.4166667e+02   1.3657100e-03
  -5.0000000e+02  -8.3333333e+00   6.5144300e-04
  -5.0000000e+02  -2.5000000e+01   6.1284300e-04
  -5.0000000e+02  -4.1666667e+01   5.6319200e-04
  -5.0000000e+02  -5.8333333e+01   5.2095900e-04
  -5.0000000e+02  -7.5000000e+01   4.9272700e-04
  -5.0000000e+02  -9.1666667e+01   4.7912500e-04
  -5.0000000e+02  -1.0833333e+02   4.7874100e-04
  -5.0000000e+02  -1.2500000e+02   4.8972700e-04
  -5.0000000e+02  -1.4166667e+02   5.1048200e-04
  -5.0000000e+02  -1.5833333e+02   5.3952900e-04
  -5.0000000e+02  -1.7500000e+02   5.7555500e-04
  -5.0000000e+02  -1.9166667e+02   6.1744200e-04
  -5.0000000e+02  -2.0833333e+02   6.6395100e-04
  -5.0000000e+02  -2.2500000e+02   7.1400500e-04
  -5.0000000e+02  -2.4166667e+02   7.6651000e-04
  -5.0000000e+02  -2.5833333e+02   8.2035200e-04
  -5.0000000e+02  -2.7500000e+02   8.7458600e-04
  -5.0000000e+02  -2.9166667e+02   9.2831600e-04
  -5.0000000e+02  -3.0833333e+02   9.8064500e-04
  -5.0000000e+02  -3.2500000e+02   1.0308900e-03
  -5.0000000e+02  -3.4166667e+02   1.0785000e-03
  -5.0000000e+02  -3.5833333e+02   1.1230100e-03
  -5.0000000e+02  -3.7500000e+02   1.1640900e-03
  -5.0000000e+02  -3.9166667e+02   1.2015300e-03
  -5.0000000e+02  -4.0833333e+02   1.2351900e-03
  -5.0000000e+02  -4.2500000e+02   1.2650700e-03
  -5.0000000e+02  -4.4166667e+02   1.2912100e-03
  -5.0000000e+02  -4.5833333e+02   1.3137300e-03
  -5.0000000e+02  -4.7500000e+02   1.3328200e-03
  -5.0000000e+02  -4.9166667e+02   1.3486400e-03
  -5.0000000e+02  -5.0833333e+02   1.3614600e-03
  -5.0000000e+02  -5.2500000e+02   1.3715100e-03
  -5.0000000e+02  -5.4166667e+02   1.3790200e-03
  -5.0000000e+02  -5.5833333e+02   1.3842800e-03
  -5.0000000e+02  -5.7500000e+02   1.3875000e-03
  -5.0000000e+02  -5.9166667e+02   1.3889300e-03
  -5.0000000e+02  -6.0833333e+02   1.3888000e-03
  -5.0000000e+02  -6.2500000e+02   1.3873100e-03
  -5.0000000e+02  -6.4166667e+02   1.3846500e-03
  -4.6666667e+02  -8.3333333e+00   6.5960800e-04
  -4.6666667e+02  -2.5000000e+01   6.0469200e-04
  -4.6666667e+02  -4.1666667e+01   5.5035300e-04
  -4.6666667e+02  -5.8333333e+01   5.1008700e-04
  -4.6666667e+02  -7.5000000e+01   4.8538400e-04
  -4.6666667e+02  -9.1666667e+01   4.7485800e-04
  -4.6666667e+02  -1.0833333e+02   4.7668700e-04
  -4.6666667e+02  -1.2500000e+02   4.8924600e-04
  -4.6666667e+02  -1.4166667e+02   5.1107000e-04
  -4.6666667e+02  -1.5833333e+02   5.4093600e-04
  -4.6666667e+02  -1.7500000e+02   5.7772700e-04
  -4.6666667e+02  -1.9166667e+02   6.2032300e-04
  -4.6666667e+02  -2.0833333e+02   6.6772400e-04
  -4.6666667e+02  -2.2500000e+02   7.1878200e-04
  -4.6666667e+02  -2.4166667e+02   7.7243700e-04
  -4.6666667e+02  -2.5833333e+02   8.2761500e-04
  -4.6666667e+02  -2.7500000e+02   8.8329700e-04
  -4.6666667e+02  -2.9166667e+02   9.3859600e-04
  -4.6666667e+02  -3.0833333e+02   9.9262700e-04
  -4.6666667e+02  -3.2500000e+02   1.0445800e-03
  -4.6666667e+02  -3.4166667e+02   1.0938600e-03
  -4.6666667e+02  -3.5833333e+02   1.1400100e-03
  -4.6666667e+02  -3.7500000e+02   1.1826200e-03
  -4.6666667e+02  -3.9166667e+02   1.2214500e-03
  -4.6666667e+02  -4.0833333e+02   1.2563400e-03
  -4.6666667e+02  -4.2500000e+02   1.2872600e-03
  -4.6666667e+02  -4.4166667e+02   1.3142400e-03
  -4.6666667e+02  -4.5833333e+02   1.3374100e-03
  -4.6666667e+02  -4.7500000e+02   1.3569200e-03
  -4.6666667e+02  -4.9166667e+02   1.3730100e-03
  -4.6666667e+02  -5.0833333e+02   1.3858900e-03
  -4.6666667e+02  -5.2500000e+02   1.3958200e-03
  -4.6666667e+02  -5.4166667e+02   1.4030900e-03
  -4.6666667e+02  -5.5833333e+02   1.4079600e-03
  -4.6666667e+02  -5.7500000e+02   1.4106800e-03
  -4.6666667e+02  -5.9166667e+02   1.4115200e-03
  -4.6666667e+02  -6.0833333e+02   1.4107200e-03
  -4.6666667e+02  -6.2500000e+02   1.4084800e-03
  -4.6666667e+02  -6.4166667e+02   1.4050400e-03
  -4.3333333e+02  -8.3333333e+00   4.9314300e-04
  -4.3333333e+02  -2.5000000e+01   4.9524200e-04
  -4.3333333e+02  -4.1666667e+01   4.8837700e-04
  -4.3333333e+02  -5.8333333e+01   4.7760200e-04
  -4.3333333e+02  -7.5000000e+01   4.6951300e-04
  -4.3333333e+02  -9.1666667e+01   4.6812700e-04
  -4.3333333e+02  -1.0833333e+02   4.7510500e-04
  -4.3333333e+02  -1.2500000e+02   4.9064400e-04
  -4.3333333e+02  -1.4166667e+02   5.1439900e-04
  -4.3333333e+02  -1.5833333e+02   5.4564200e-04
  -4.3333333e+02  -1.7500000e+02   5.8355700e-04
  -4.3333333e+02  -1.9166667e+02   6.2728600e-04
  -4.3333333e+02  -2.0833333e+02   6.7577200e-04
  -4.3333333e+02  -2.2500000e+02   7.2801500e-04
  -4.3333333e+02  -2.4166667e+02   7.8300300e-04
  -4.3333333e+02  -2.5833333e+02   8.3969600e-04
  -4.3333333e+02  -2.7500000e+02   8.9694800e-04
  -4.3333333e+02  -2.9166667e+02   9.5380800e-04
  -4.3333333e+02  -3.0833333e+02   1.0094700e-03
  -4.3333333e+02  -3.2500000e+02   1.0630900e-03
  -4.3333333e+02  -3.4166667e+02   1.1139900e-03
  -4.3333333e+02  -3.5833333e+02   1.1616500e-03
  -4.3333333e+02  -3.7500000e+02   1.2056600e-03
  -4.3333333e+02  -3.9166667e+02   1.2457200e-03
  -4.3333333e+02  -4.0833333e+02   1.2816700e-03
  -4.3333333e+02  -4.2500000e+02   1.3134400e-03
  -4.3333333e+02  -4.4166667e+02   1.3410800e-03
  -4.3333333e+02  -4.5833333e+02   1.3646800e-03
  -4.3333333e+02  -4.7500000e+02   1.3844300e-03
  -4.3333333e+02  -4.9166667e+02   1.4005400e-03
  -4.3333333e+02  -5.0833333e+02   1.4132600e-03
  -4.3333333e+02  -5.2500000e+02   1.4228900e-03
  -4.3333333e+02  -5.4166667e+02   1.4297000e-03
  -4.3333333e+02  -5.5833333e+02   1.4339700e-03
  -4.3333333e+02  -5.7500000e+02   1.4360100e-03
  -4.3333333e+02  -5.9166667e+02   1.4360700e-03
  -4.3333333e+02  -6.0833333e+02   1.4344000e-03
  -4.3333333e+02  -6.2500000e+02   1.4312700e-03
  -4.3333333e+02  -6.4166667e+02   1.4268800e-03
  -4.0000000e+02  -8.3333333e+00   5.4114600e-04
  -4.0000000e+02  -2.5000000e+01   5.2428800e-04
  -4.0000000e+02  -4.1666667e+01   5.0191200e-04
  -4.0000000e+02  -5.8333333e+01   4.8289800e-04
  -4.0000000e+02  -7.5000000e+01   4.7173900e-04
  -4.0000000e+02  -9.1666667e+01   4.7000900e-04
  -4.0000000e+02  -1.0833333e+02   4.7776000e-04
  -4.0000000e+02  -1.2500000e+02   4.9458500e-04
  -4.0000000e+02  -1.4166667e+02   5.1968900e-04
  -4.0000000e+02  -1.5833333e+02   5.5235500e-04
  -4.0000000e+02  -1.7500000e+02   5.9171900e-04
  -4.0000000e+02  -1.9166667e+02   6.3687800e-04
  -4.0000000e+02  -2.0833333e+02   6.8690800e-04
  -4.0000000e+02  -2.2500000e+02   7.4074500e-04
  -4.0000000e+02  -2.4166667e+02   7.9740400e-04
  -4.0000000e+02  -2.5833333e+02   8.5574700e-04
  -4.0000000e+02  -2.7500000e+02   9.1475500e-04
  -4.0000000e+02  -2.9166667e+02   9.7345800e-04
  -4.0000000e+02  -3.0833333e+02   1.0308800e-03
  -4.0000000e+02  -3.2500000e+02   1.0861900e-03
  -4.0000000e+02  -3.4166667e+02   1.1387000e-03
  -4.0000000e+02  -3.5833333e+02   1.1878600e-03
  -4.0000000e+02  -3.7500000e+02   1.2331900e-03
  -4.0000000e+02  -3.9166667e+02   1.2743900e-03
  -4.0000000e+02  -4.0833333e+02   1.3112500e-03
  -4.0000000e+02  -4.2500000e+02   1.3437200e-03
  -4.0000000e+02  -4.4166667e+02   1.3718100e-03
  -4.0000000e+02  -4.5833333e+02   1.3956400e-03
  -4.0000000e+02  -4.7500000e+02   1.4154000e-03
  -4.0000000e+02  -4.9166667e+02   1.4313200e-03
  -4.0000000e+02  -5.0833333e+02   1.4436700e-03
  -4.0000000e+02  -5.2500000e+02   1.4527600e-03
  -4.0000000e+02  -5.4166667e+02   1.4588900e-03
  -4.0000000e+02  -5.5833333e+02   1.4623700e-03
  -4.0000000e+02  -5.7500000e+02   1.4635000e-03
  -4.0000000e+02  -5.9166667e+02   1.4625600e-03
  -4.0000000e+02  -6.0833333e+02   1.4598600e-03
  -4.0000000e+02  -6.2500000e+02   1.4556500e-03
  -4.0000000e+02  -6.4166667e+02   1.4501500e-03
  -3.6666667e+02  -8.3333333e+00   5.6317400e-04
  -3.6666667e+02  -2.5000000e+01   5.2568500e-04
  -3.6666667e+02  -4.1666667e+01   4.9270600e-04
  -3.6666667e+02  -5.8333333e+01   4.7178900e-04
  -3.6666667e+02  -7.5000000e+01   4.6276700e-04
  -3.6666667e+02  -9.1666667e+01   4.6436900e-04
  -3.6666667e+02  -1.0833333e+02   4.7561000e-04
  -3.6666667e+02  -1.2500000e+02   4.9553600e-04
  -3.6666667e+02  -1.4166667e+02   5.2348100e-04
  -3.6666667e+02  -1.5833333e+02   5.5868100e-04
  -3.6666667e+02  -1.7500000e+02   6.0035900e-04
  -3.6666667e+02  -1.9166667e+02   6.4779000e-04
  -3.6666667e+02  -2.0833333e+02   6.9997700e-04
  -3.6666667e+02  -2.2500000e+02   7.5600800e-04
  -3.6666667e+02  -2.4166667e+02   8.1481800e-04
  -3.6666667e+02  -2.5833333e+02   8.7527800e-04
  -3.6666667e+02  -2.7500000e+02   9.3637300e-04
  -3.6666667e+02  -2.9166667e+02   9.9713300e-04
  -3.6666667e+02  -3.0833333e+02   1.0565400e-03
  -3.6666667e+02  -3.2500000e+02   1.1136900e-03
  -3.6666667e+02  -3.4166667e+02   1.1679100e-03
  -3.6666667e+02  -3.5833333e+02   1.2185700e-03
  -3.6666667e+02  -3.7500000e+02   1.2652000e-03
  -3.6666667e+02  -3.9166667e+02   1.3074500e-03
  -3.6666667e+02  -4.0833333e+02   1.3451300e-03
  -3.6666667e+02  -4.2500000e+02   1.3781300e-03
  -3.6666667e+02  -4.4166667e+02   1.4065000e-03
  -3.6666667e+02  -4.5833333e+02   1.4303700e-03
  -3.6666667e+02  -4.7500000e+02   1.4499100e-03
  -3.6666667e+02  -4.9166667e+02   1.4654200e-03
  -3.6666667e+02  -5.0833333e+02   1.4771700e-03
  -3.6666667e+02  -5.2500000e+02   1.4854700e-03
  -3.6666667e+02  -5.4166667e+02   1.4906800e-03
  -3.6666667e+02  -5.5833333e+02   1.4931200e-03
  -3.6666667e+02  -5.7500000e+02   1.4931200e-03
  -3.6666667e+02  -5.9166667e+02   1.4910000e-03
  -3.6666667e+02  -6.0833333e+02   1.4870500e-03
  -3.6666667e+02  -6.2500000e+02   1.4815600e-03
  -3.6666667e+02  -6.4166667e+02   1.4747700e-03
  -3.3333333e+02  -8.3333333e+00   3.8606100e-04
  -3.3333333e+02  -2.5000000e+01   3.9997700e-04
  -3.3333333e+02  -4.1666667e+01   4.1219800e-04
  -3.3333333e+02  -5.8333333e+01   4.2206200e-04
  -3.3333333e+02  -7.5000000e+01   4.3264300e-04
  -3.3333333e+02  -9.1666667e+01   4.4685900e-04
  -3.3333333e+02  -1.0833333e+02   4.6651500e-04
  -3.3333333e+02  -1.2500000e+02   4.9251600e-04
  -3.3333333e+02  -1.4166667e+02   5.2509000e-04
  -3.3333333e+02  -1.5833333e+02   5.6411700e-04
  -3.3333333e+02  -1.7500000e+02   6.0916600e-04
  -3.3333333e+02  -1.9166667e+02   6.5961600e-04
  -3.3333333e+02  -2.0833333e+02   7.1471200e-04
  -3.3333333e+02  -2.2500000e+02   7.7344500e-04
  -3.3333333e+02  -2.4166667e+02   8.3489500e-04
  -3.3333333e+02  -2.5833333e+02   8.9803500e-04
  -3.3333333e+02  -2.7500000e+02   9.6167000e-04
  -3.3333333e+02  -2.9166667e+02   1.0247400e-03
  -3.3333333e+02  -3.0833333e+02   1.0863300e-03
  -3.3333333e+02  -3.2500000e+02   1.1455500e-03
  -3.3333333e+02  -3.4166667e+02   1.2015900e-03
  -3.3333333e+02  -3.5833333e+02   1.2538200e-03
  -3.3333333e+02  -3.7500000e+02   1.3017400e-03
  -3.3333333e+02  -3.9166667e+02   1.3450000e-03
  -3.3333333e+02  -4.0833333e+02   1.3833600e-03
  -3.3333333e+02  -4.2500000e+02   1.4167500e-03
  -3.3333333e+02  -4.4166667e+02   1.4452200e-03
  -3.3333333e+02  -4.5833333e+02   1.4689000e-03
  -3.3333333e+02  -4.7500000e+02   1.4880200e-03
  -3.3333333e+02  -4.9166667e+02   1.5028500e-03
  -3.3333333e+02  -5.0833333e+02   1.5137200e-03
  -3.3333333e+02  -5.2500000e+02   1.5209900e-03
  -3.3333333e+02  -5.4166667e+02   1.5250300e-03
  -3.3333333e+02  -5.5833333e+02   1.5261800e-03
  -3.3333333e+02  -5.7500000e+02   1.5248200e-03
  -3.3333333e+02  -5.9166667e+02   1.5212800e-03
  -3.3333333e+02  -6.0833333e+02   1.5158700e-03
  -3.3333333e+02  -6.2500000e+02   1.5089000e-03
  -3.3333333e+02  -6.4166667e+02   1.5006500e-03
  -3.0000000e+02  -8.3333333e+00   4.0071900e-04
  -3.0000000e+02  -2.5000000e+01   4.0114700e-04
  -3.0000000e+02  -4.1666667e+01   4.0365800e-04
  -3.0000000e+02  -5.8333333e+01   4.0987300e-04
  -3.0000000e+02  -7.5000000e+01   4.2107500e-04
  -3.0000000e+02  -9.1666667e+01   4.3810900e-04
  -3.0000000e+02  -1.0833333e+02   4.6148600e-04
  -3.0000000e+02  -1.2500000e+02   4.9140300e-04
  -3.0000000e+02  -1.4166667e+02   5.2784600e-04
  -3.0000000e+02  -1.5833333e+02   5.7057200e-04
  -3.0000000e+02  -1.7500000e+02   6.1917900e-04
  -3.0000000e+02  -1.9166667e+02   6.7305900e-04
  -3.0000000e+02  -2.0833333e+02   7.3144000e-04
  -3.0000000e+02  -2.2500000e+02   7.9341900e-04
  -3.0000000e+02  -2.4166667e+02   8.5798700e-04
  -3.0000000e+02  -2.5833333e+02   9.2407200e-04
  -3.0000000e+02  -2.7500000e+02   9.9054500e-04
  -3.0000000e+02  -2.9166667e+02   1.0563300e-03
  -3.0000000e+02  -3.0833333e+02   1.1204300e-03
  -3.0000000e+02  -3.2500000e+02   1.1818700e-03
  -3.0000000e+02  -3.4166667e+02   1.2398500e-03
  -3.0000000e+02  -3.5833333e+02   1.2937000e-03
  -3.0000000e+02  -3.7500000e+02   1.3429100e-03
  -3.0000000e+02  -3.9166667e+02   1.3871000e-03
  -3.0000000e+02  -4.0833333e+02   1.4260300e-03
  -3.0000000e+02  -4.2500000e+02   1.4596600e-03
  -3.0000000e+02  -4.4166667e+02   1.4880100e-03
  -3.0000000e+02  -4.5833333e+02   1.5112700e-03
  -3.0000000e+02  -4.7500000e+02   1.5296900e-03
  -3.0000000e+02  -4.9166667e+02   1.5435800e-03
  -3.0000000e+02  -5.0833333e+02   1.5533000e-03
  -3.0000000e+02  -5.2500000e+02   1.5592600e-03
  -3.0000000e+02  -5.4166667e+02   1.5618500e-03
  -3.0000000e+02  -5.5833333e+02   1.5614600e-03
  -3.0000000e+02  -5.7500000e+02   1.5584700e-03
  -3.0000000e+02  -5.9166667e+02   1.5532700e-03
  -3.0000000e+02  -6.0833333e+02   1.5461800e-03
  -3.0000000e+02  -6.2500000e+02   1.5375400e-03
  -3.0000000e+02  -6.4166667e+02   1.5276300e-03
  -2.6666667e+02  -8.3333333e+00   4.0837800e-04
  -2.6666667e+02  -2.5000000e+01   3.9415800e-04
  -2.6666667e+02  -4.1666667e+01   3.8849700e-04
  -2.6666667e+02  -5.8333333e+01   3.9331200e-04
  -2.6666667e+02  -7.5000000e+01   4.0699400e-04
  -2.6666667e+02  -9.1666667e+01   4.2821600e-04
  -2.6666667e+02  -1.0833333e+02   4.5624800e-04
  -2.6666667e+02  -1.2500000e+02   4.9077300e-04
  -2.6666667e+02  -1.4166667e+02   5.3156700e-04
  -2.6666667e+02  -1.5833333e+02   5.7840400e-04
  -2.6666667e+02  -1.7500000e+02   6.3089300e-04
  -2.6666667e+02  -1.9166667e+02   6.8854000e-04
  -2.6666667e+02  -2.0833333e+02   7.5059300e-04
  -2.6666667e+02  -2.2500000e+02   8.1616000e-04
  -2.6666667e+02  -2.4166667e+02   8.8425600e-04
  -2.6666667e+02  -2.5833333e+02   9.5367200e-04
  -2.6666667e+02  -2.7500000e+02   1.0233200e-03
  -2.6666667e+02  -2.9166667e+02   1.0921500e-03
  -2.6666667e+02  -3.0833333e+02   1.1589900e-03
  -2.6666667e+02  -3.2500000e+02   1.2228200e-03
  -2.6666667e+02  -3.4166667e+02   1.2828400e-03
  -2.6666667e+02  -3.5833333e+02   1.3383500e-03
  -2.6666667e+02  -3.7500000e+02   1.3888300e-03
  -2.6666667e+02  -3.9166667e+02   1.4338400e-03
  -2.6666667e+02  -4.0833333e+02   1.4732200e-03
  -2.6666667e+02  -4.2500000e+02   1.5068600e-03
  -2.6666667e+02  -4.4166667e+02   1.5348700e-03
  -2.6666667e+02  -4.5833333e+02   1.5574400e-03
  -2.6666667e+02  -4.7500000e+02   1.5748700e-03
  -2.6666667e+02  -4.9166667e+02   1.5875200e-03
  -2.6666667e+02  -5.0833333e+02   1.5958000e-03
  -2.6666667e+02  -5.2500000e+02   1.6001400e-03
  -2.6666667e+02  -5.4166667e+02   1.6009800e-03
  -2.6666667e+02  -5.5833333e+02   1.5987600e-03
  -2.6666667e+02  -5.7500000e+02   1.5938900e-03
  -2.6666667e+02  -5.9166667e+02   1.5867800e-03
  -2.6666667e+02  -6.0833333e+02   1.5777900e-03
  -2.6666667e+02  -6.2500000e+02   1.5672700e-03
  -2.6666667e+02  -6.4166667e+02   1.5555200e-03
  -2.3333333e+02  -8.3333333e+00   2.8058800e-04
  -2.3333333e+02  -2.5000000e+01   2.9935600e-04
  -2.3333333e+02  -4.1666667e+01   3.2433500e-04
  -2.3333333e+02  -5.8333333e+01   3.5194800e-04
  -2.3333333e+02  -7.5000000e+01   3.8168400e-04
  -2.3333333e+02  -9.1666667e+01   4.1417400e-04
  -2.3333333e+02  -1.0833333e+02   4.5039300e-04
  -2.3333333e+02  -1.2500000e+02   4.9117300e-04
  -2.3333333e+02  -1.4166667e+02   5.3708200e-04
  -2.3333333e+02  -1.5833333e+02   5.8841500e-04
  -2.3333333e+02  -1.7500000e+02   6.4504600e-04
  -2.3333333e+02  -1.9166667e+02   7.0666100e-04
  -2.3333333e+02  -2.0833333e+02   7.7262800e-04
  -2.3333333e+02  -2.2500000e+02   8.4201100e-04
  -2.3333333e+02  -2.4166667e+02   9.1384900e-04
  -2.3333333e+02  -2.5833333e+02   9.8704600e-04
  -2.3333333e+02  -2.7500000e+02   1.0603000e-03
  -2.3333333e+02  -2.9166667e+02   1.1323300e-03
  -2.3333333e+02  -3.0833333e+02   1.2020800e-03
  -2.3333333e+02  -3.2500000e+02   1.2685100e-03
  -2.3333333e+02  -3.4166667e+02   1.3306800e-03
  -2.3333333e+02  -3.5833333e+02   1.3878800e-03
  -2.3333333e+02  -3.7500000e+02   1.4395300e-03
  -2.3333333e+02  -3.9166667e+02   1.4852800e-03
  -2.3333333e+02  -4.0833333e+02   1.5248900e-03
  -2.3333333e+02  -4.2500000e+02   1.5583200e-03
  -2.3333333e+02  -4.4166667e+02   1.5857000e-03
  -2.3333333e+02  -4.5833333e+02   1.6072900e-03
  -2.3333333e+02  -4.7500000e+02   1.6234000e-03
  -2.3333333e+02  -4.9166667e+02   1.6344800e-03
  -2.3333333e+02  -5.0833333e+02   1.6409800e-03
  -2.3333333e+02  -5.2500000e+02   1.6433800e-03
  -2.3333333e+02  -5.4166667e+02   1.6421700e-03
  -2.3333333e+02  -5.5833333e+02   1.6378300e-03
  -2.3333333e+02  -5.7500000e+02   1.6308000e-03
  -2.3333333e+02  -5.9166667e+02   1.6215300e-03
  -2.3333333e+02  -6.0833333e+02   1.6104100e-03
  -2.3333333e+02  -6.2500000e+02   1.5978000e-03
  -2.3333333e+02  -6.4166667e+02   1.5840300e-03
  -2.0000000e+02  -8.3333333e+00   2.9639500e-04
  -2.0000000e+02  -2.5000000e+01   3.0824400e-04
  -2.0000000e+02  -4.1666667e+01   3.2821100e-04
  -2.0000000e+02  -5.8333333e+01   3.5355800e-04
  -2.0000000e+02  -7.5000000e+01   3.8309600e-04
  -2.0000000e+02  -9.1666667e+01   4.1673700e-04
  -2.0000000e+02  -1.0833333e+02   4.5493900e-04
  -2.0000000e+02  -1.2500000e+02   4.9826800e-04
  -2.0000000e+02  -1.4166667e+02   5.4716600e-04
  -2.0000000e+02  -1.5833333e+02   6.0180600e-04
  -2.0000000e+02  -1.7500000e+02   6.6208600e-04
  -2.0000000e+02  -1.9166667e+02   7.2756500e-04
  -2.0000000e+02  -2.0833333e+02   7.9754600e-04
  -2.0000000e+02  -2.2500000e+02   8.7106800e-04
  -2.0000000e+02  -2.4166667e+02   9.4702400e-04
  -2.0000000e+02  -2.5833333e+02   1.0242200e-03
  -2.0000000e+02  -2.7500000e+02   1.1012800e-03
  -2.0000000e+02  -2.9166667e+02   1.1768800e-03
  -2.0000000e+02  -3.0833333e+02   1.2498400e-03
  -2.0000000e+02  -3.2500000e+02   1.3190000e-03
  -2.0000000e+02  -3.4166667e+02   1.3833900e-03
  -2.0000000e+02  -3.5833333e+02   1.4422300e-03
  -2.0000000e+02  -3.7500000e+02   1.4949900e-03
  -2.0000000e+02  -3.9166667e+02   1.5412800e-03
  -2.0000000e+02  -4.0833333e+02   1.5809000e-03
  -2.0000000e+02  -4.2500000e+02   1.6138400e-03
  -2.0000000e+02  -4.4166667e+02   1.6402800e-03
  -2.0000000e+02  -4.5833333e+02   1.6605200e-03
  -2.0000000e+02  -4.7500000e+02   1.6749800e-03
  -2.0000000e+02  -4.9166667e+02   1.6841200e-03
  -2.0000000e+02  -5.0833333e+02   1.6884800e-03
  -2.0000000e+02  -5.2500000e+02   1.6885900e-03
  -2.0000000e+02  -5.4166667e+02   1.6850200e-03
  -2.0000000e+02  -5.5833333e+02   1.6782600e-03
  -2.0000000e+02  -5.7500000e+02   1.6688100e-03
  -2.0000000e+02  -5.9166667e+02   1.6571500e-03
  -2.0000000e+02  -6.0833333e+02   1.6436800e-03
  -2.0000000e+02  -6.2500000e+02   1.6288000e-03
  -2.0000000e+02  -6.4166667e+02   1.6128400e-03
  -1.6666667e+02  -8.3333333e+00   3.1837100e-04
  -1.6666667e+02  -2.5000000e+01   3.2197700e-04
  -1.6666667e+02  -4.1666667e+01   3.3501600e-04
  -1.6666667e+02  -5.8333333e+01   3.5640300e-04
  -1.6666667e+02  -7.5000000e+01   3.8460100e-04
  -1.6666667e+02  -9.1666667e+01   4.1881300e-04
  -1.6666667e+02  -1.0833333e+02   4.5886600e-04
  -1.6666667e+02  -1.2500000e+02   5.0490800e-04
  -1.6666667e+02  -1.4166667e+02   5.5711300e-04
  -1.6666667e+02  -1.5833333e+02   6.1551000e-04
  -1.6666667e+02  -1.7500000e+02   6.7989200e-04
  -1.6666667e+02  -1.9166667e+02   7.4978200e-04
  -1.6666667e+02  -2.0833333e+02   8.2435800e-04
  -1.6666667e+02  -2.2500000e+02   9.0259600e-04
  -1.6666667e+02  -2.4166667e+02   9.8327500e-04
  -1.6666667e+02  -2.5833333e+02   1.0649500e-03
  -1.6666667e+02  -2.7500000e+02   1.1462400e-03
  -1.6666667e+02  -2.9166667e+02   1.2257800e-03
  -1.6666667e+02  -3.0833333e+02   1.3021700e-03
  -1.6666667e+02  -3.2500000e+02   1.3741700e-03
  -1.6666667e+02  -3.4166667e+02   1.4407700e-03
  -1.6666667e+02  -3.5833333e+02   1.5012200e-03
  -1.6666667e+02  -3.7500000e+02   1.5549200e-03
  -1.6666667e+02  -3.9166667e+02   1.6015200e-03
  -1.6666667e+02  -4.0833333e+02   1.6408600e-03
  -1.6666667e+02  -4.2500000e+02   1.6729800e-03
  -1.6666667e+02  -4.4166667e+02   1.6981100e-03
  -1.6666667e+02  -4.5833333e+02   1.7166400e-03
  -1.6666667e+02  -4.7500000e+02   1.7290500e-03
  -1.6666667e+02  -4.9166667e+02   1.7358900e-03
  -1.6666667e+02  -5.0833333e+02   1.7377600e-03
  -1.6666667e+02  -5.2500000e+02   1.7352700e-03
  -1.6666667e+02  -5.4166667e+02   1.7290000e-03
  -1.6666667e+02  -5.5833333e+02   1.7195500e-03
  -1.6666667e+02  -5.7500000e+02   1.7074300e-03
  -1.6666667e+02  -5.9166667e+02   1.6931400e-03
  -1.6666667e+02  -6.0833333e+02   1.6771400e-03
  -1.6666667e+02  -6.2500000e+02   1.6598200e-03
  -1.6666667e+02  -6.4166667e+02   1.6415400e-03
  -1.3333333e+02  -8.3333333e+00   2.3821700e-04
  -1.3333333e+02  -2.5000000e+01   2.5843300e-04
  -1.3333333e+02  -4.1666667e+01   2.8828900e-04
  -1.3333333e+02  -5.8333333e+01   3.2370600e-04
  -1.3333333e+02  -7.5000000e+01   3.6309000e-04
  -1.3333333e+02  -9.1666667e+01   4.0622400e-04
  -1.3333333e+02  -1.0833333e+02   4.5361800e-04
  -1.3333333e+02  -1.2500000e+02   5.0599200e-04
  -1.3333333e+02  -1.4166667e+02   5.6395400e-04
  -1.3333333e+02  -1.5833333e+02   6.2786100e-04
  -1.3333333e+02  -1.7500000e+02   6.9764400e-04
  -1.3333333e+02  -1.9166667e+02   7.7290000e-04
  -1.3333333e+02  -2.0833333e+02   8.5288700e-04
  -1.3333333e+02  -2.2500000e+02   9.3644600e-04
  -1.3333333e+02  -2.4166667e+02   1.0223100e-03
  -1.3333333e+02  -2.5833333e+02   1.1090700e-03
  -1.3333333e+02  -2.7500000e+02   1.1951000e-03
  -1.3333333e+02  -2.9166667e+02   1.2787600e-03
  -1.3333333e+02  -3.0833333e+02   1.3586700e-03
  -1.3333333e+02  -3.2500000e+02   1.4335800e-03
  -1.3333333e+02  -3.4166667e+02   1.5023800e-03
  -1.3333333e+02  -3.5833333e+02   1.5642700e-03
  -1.3333333e+02  -3.7500000e+02   1.6187000e-03
  -1.3333333e+02  -3.9166667e+02   1.6653200e-03
  -1.3333333e+02  -4.0833333e+02   1.7040500e-03
  -1.3333333e+02  -4.2500000e+02   1.7349700e-03
  -1.3333333e+02  -4.4166667e+02   1.7584100e-03
  -1.3333333e+02  -4.5833333e+02   1.7748400e-03
  -1.3333333e+02  -4.7500000e+02   1.7848100e-03
  -1.3333333e+02  -4.9166667e+02   1.7889900e-03
  -1.3333333e+02  -5.0833333e+02   1.7880400e-03
